-3.702148746390  0.637079924278 -4.775843763309
-3.678652937164  0.717953030089 -4.775843763309
-3.697421668596  0.688261425266 -4.780032691162
-3.704731482608  0.653072594715 -4.778829402373
-3.369549962258  0.670503992106 -4.499518725586
-3.398696854473  0.570179731060 -4.499518725586
-3.372012386154  0.649758902795 -4.493555842999
-3.430008884959  0.794653389902 -4.597963791633
-3.512250969771  0.511574277225 -4.597963791633
-3.405409378314  0.557095837100 -4.502487856436
-3.498995531126  0.837264314300 -4.672011269382
-3.593568738347  0.511741199897 -4.672011269382
0.409604615693  2.052396315338 -6.118396347970
0.472164783452  2.035867350722 -6.118311132700
1.830004882892  0.981603450156 -6.114369803444
1.843836706128  0.957258068562 -6.114288734117
2.067260399817 -0.718981775890 -6.109120589889
1.024996880175 -2.102735593137 -6.105550404098
-0.659257318337 -2.367894246817 -6.105708770515
-2.057802327450 -1.386184011812 -6.109454992833
-2.385460563361  0.356611608314 -6.114882460497
-2.377956431026  0.393930915957 -6.114990440864
-1.383166580320  1.776746548554 -6.118584747065
-1.361491113312  1.789353592626 -6.118610362017
3.442613216837 -0.916004687605 -5.106675453736
3.437000396054 -0.913335563627 -4.707108105743
3.416535876609 -1.003742430708 -4.690622671597
3.411938195865 -1.024313870170 -4.690660043052
3.404737722859 -1.056925948793 -4.696399288277
3.408424070581 -1.069596208979 -5.115853224026
3.413316267379 -1.048012568517 -5.120208421469
3.421135295942 -1.013093070720 -5.121083304190
2.876012170305 -2.257570857713 -5.096483933070
2.869930845041 -2.252497459221 -4.688906310214
2.851718551421 -2.276555347170 -4.682761232503
2.793701436145 -2.354312524670 -4.697787002803
2.794654095028 -2.365666411585 -5.088339514697
2.851961561683 -2.289845684086 -5.103984619279
-2.183196417733 -3.227208281933 -5.123093782551
-2.178179397050 -3.226697782541 -4.762481033795
-2.271178713643 -3.161137678073 -4.744694822090
-2.346376893106 -3.108487650162 -4.762574636482
-2.351375271315 -3.109110325152 -5.132038361682
-2.285834733124 -3.155353978112 -5.148207669428
3.495134020920  0.322976292620 -5.122343847221
3.489617865790  0.325283301729 -4.729740295963
3.501062569447  0.223101630550 -4.741958531336
3.506128284310  0.222063392482 -5.111402908247
3.496684559501  0.309249544164 -5.124962327189
1.885125464829 -3.240248098309 -5.067016471219
1.881499202038 -3.234955128736 -4.715508113377
1.819642072086 -3.273950705035 -4.703466709518
1.804459577769 -3.283589422739 -4.703633979099
1.727071637663 -3.333066061495 -4.720517202146
1.730402138095 -3.338451225284 -5.067605139171
1.804542088827 -3.291734862822 -5.083077676382
0.560301461329 -3.785219298705 -5.072222834391
0.573475245011 -3.777392923871 -4.732072497551
0.486111586721 -3.792406551618 -4.717685880525
0.416684211517 -3.804739473695 -4.730972993960
0.414484445532 -3.810527094886 -5.063524143436
0.511799922127 -3.793825232158 -5.080903847019
3.011691005916  1.749162855183 -5.119708113043
3.007524750876  1.749522910888 -4.753884291213
3.037078654892  1.697859670362 -4.761800569073
3.040471986625  1.698833389858 -5.126502101152
3.035257590724  1.708012611891 -5.128473037205
-2.059133411225  2.987966040588 -5.174646966604
-2.059248739793  2.985261556976 -4.812523211462
-2.054016585967  2.988360999734 -4.811324323582
-2.033960133295  3.000272624660 -4.810919851847
-1.920846096761  3.067621688289 -4.832004793785
-1.921126769359  3.069781462079 -5.151615014143
-2.038192588952  3.000418146103 -5.176319556216
-2.051226508925  2.992675901241 -5.176398827915
-3.162602386058  1.954659618022 -5.174164083798
-3.155230572526  1.962320513932 -4.819935968223
-3.138776241975  1.985695143161 -4.815237157164
-3.116304973843  2.017728974722 -4.822808754560
-3.124426561100  2.008974455010 -5.173679665438
-3.144001201163  1.981175867376 -5.180356567391
-3.768997728970 -0.853304409180 -5.128554186827
-3.765699773134 -0.855974703373 -4.800333762419
-3.777074408581 -0.783462002551 -4.787747540539
-3.789426148778 -0.706267418080 -4.802054314518
-3.792721200912 -0.703947800658 -5.136284041108
-3.782638658591 -0.768114194377 -5.145464554603
-0.775979415923  3.475882363662 -5.143263214791
-0.774600029593  3.474342517060 -4.806816540008
-0.704040379371  3.485446898522 -4.793198621923
-0.635498276086  3.496364049427 -4.804899064460
-0.637543961219  3.497793986772 -5.140508048585
-0.707550426981  3.486777692136 -5.154216093224
-3.250529661659 -2.147844441647 -5.106961357645
-3.247773100935 -2.145376665635 -4.777242593396
-3.267207056085 -2.113529199959 -4.770893791499
-3.288082518234 -2.079470466657 -4.771221557846
-3.320765494977 -2.026376904131 -4.782591111510
-3.320497200292 -2.033722596120 -5.109555176078
-3.292949166928 -2.078843950705 -5.117461993050
-3.284184532400 -2.093142956415 -5.117292642081
0.780686861172  3.416985789703 -5.143759578643
0.777347741812  3.415698487294 -4.789138302047
0.832894597329  3.401487949653 -4.797649111952
0.839970544800  3.401744149370 -5.140423186284
0.804509781708  3.410894260194 -5.147919319910
0.803110446143  3.411253601634 -5.147928105661
-0.952072139317 -3.765749821127 -5.078348388201
-0.950376094283 -3.761096601726 -4.741291886961
-0.965593571605 -3.757402681676 -4.738592521038
-0.984958798110 -3.752755178916 -4.738704206306
-1.029501680186 -3.742183551021 -4.746841670199
-1.031224441268 -3.746858922908 -5.085800886158
-1.024185789367 -3.748564150914 -5.086826441419
-0.989765521234 -3.756813740193 -5.085894882164
-3.764597790353  0.513507889347 -5.157232466084
-3.763794937463  0.519043138563 -4.827293867036
-3.747949802435  0.602151004066 -4.816161458707
-3.746766623460  0.606937610803 -5.168307679556
-3.749072926556  0.594837656930 -5.170767432139
2.095786531362  2.773645045018 -5.126632966770
2.090287335406  2.774999118566 -4.776737318996
2.223240655433  2.668658606171 -4.796823586062
2.227755733838  2.667730556129 -5.105166344180
2.109334017639  2.762819400887 -5.129836431637
-3.539875542673  1.265378996402 -5.104044290465
-3.540963434936  1.257505302185 -4.869464218407
-3.520426153346  1.304991870957 -4.870677059698
-3.519539967677  1.312375720818 -5.104218627390
-2.742679563994  2.454552875680 -5.109358769124
-2.746426772467  2.450047591311 -4.882918069827
-2.625581077915  2.560000861018 -4.881295244461
-2.623008146075  2.563449579013 -5.110204406076
1.471052041995  3.160387310726 -5.072008432891
1.473271657638  3.157822594772 -4.828940491384
1.564695520350  3.111207763926 -4.823507677349
1.565070105276  3.112480936379 -5.071706939792
0.001214171667  3.525497729303 -5.082728781790
-0.001324560033  3.524632776479 -4.846095793939
0.124477590641  3.520676711034 -4.845451173371
0.131523704816  3.521391534364 -5.079960307412
3.228417790279 -1.615573071855 -5.052789032309
3.223851300022 -1.612202329956 -4.747226587318
3.164764154344 -1.743009289029 -4.745944854018
3.166611212424 -1.752379304980 -5.050972499037
-2.785680395758 -2.726648504492 -5.070658396913
-2.783399130124 -2.725136049289 -4.819956268963
-2.899976486811 -2.601027861509 -4.822124329127
-2.902450004150 -2.602246194776 -5.067140810729
-0.172346238347 -3.852041206885 -5.013591396706
-0.177364836521 -3.848514152969 -4.790493614600
-0.326784600614 -3.843836709615 -4.791702810686
-0.322135481795 -3.847355320265 -5.015010365137
3.358996832937  0.948983405807 -4.786988496981
3.362683878267  0.947464932380 -5.058375743993
3.318709897618  1.082793657534 -5.058119761607
3.313856416702  1.088189569816 -4.794671102611
-3.618648181950 -1.394184187199 -4.840818979959
-3.619494923760 -1.397521560663 -5.072271679398
-3.572141569947 -1.522785172605 -5.070055880452
-3.571308013901 -1.519426072669 -4.839149578003
1.120297693656 -3.626304870027 -4.775346380087
1.151564401383 -3.617249814718 -5.020399996630
1.293233102515 -3.561174663929 -5.021539342497
1.267155265692 -3.568121909744 -4.772550035786
-1.478712558057  3.274541280281 -5.107392481695
-1.477302389332  3.273360017399 -4.864142074837
-1.291378029103  3.343612317970 -4.863764491247
-1.293338671797  3.344552920038 -5.102380974261
2.602549277838  2.304302297419 -5.065527146312
2.600326521501  2.303418616321 -4.813725601565
2.706994243062  2.178403803384 -4.804844607750
2.707891218401  2.180988766020 -5.067407535432
2.244297246854 -2.951869939392 -4.751382747961
2.248776162642 -2.955750437029 -5.030541928088
2.372589293883 -2.839509947026 -5.031500916402
2.369153858569 -2.834612222872 -4.751052932449
-1.596863611228 -3.552818292657 -5.051995671961
-1.597645232102 -3.550120609390 -4.804876060735
-1.742271676592 -3.482059325486 -4.804319747017
-1.740713467437 -3.485193578880 -5.058984362561
-3.830899002616 -0.100555264057 -4.863829163797
-3.833004330592 -0.103273929801 -5.098456101983
-3.834268867462 -0.184248357503 -5.097601701235
-3.832171358899 -0.182723973660 -4.861730104736
3.520556665085 -0.308307624016 -5.068593974584
3.516378883104 -0.304695386733 -4.765987632779
3.509547918819 -0.412349193445 -4.762005988104
3.513866726618 -0.414699421540 -5.068845816978
-2.359587312404  2.776238027345 -5.130434087649
-2.362630508009  2.772174875495 -4.859367912862
-2.223581104483  2.876464802259 -4.842399213560
-2.221824061032  2.879777677557 -5.146298667109
1.184787706992  3.284654705256 -4.829126270303
1.184894510628  3.286547026366 -5.089191444048
1.018536517014  3.346595452387 -5.110185385939
1.016717387731  3.345080865955 -4.817963095202
-3.690242289934  0.837799697427 -5.132082215338
-3.694409648207  0.819151951819 -4.828108668386
-3.646920965022  0.973854638515 -4.848266743770
-3.644663160159  0.985701887379 -5.116882937911
3.025705757695 -2.017436015846 -5.065169408134
3.019792349164 -2.014505375437 -4.725316387250
2.974802003582 -2.090221451803 -4.715894793763
2.980938669806 -2.093427088695 -5.072898731836
0.362124571990  3.498655615105 -5.089358783822
0.361434650849  3.497234518268 -4.829495125712
0.541385708100  3.468602916797 -4.807394392708
0.541143850676  3.470402427175 -5.106454758094
-0.607233518941 -3.822454294313 -5.032524123921
-0.606510229852 -3.819076819715 -4.779927994091
-0.664177165780 -3.810797780945 -4.774715667426
-0.669261769512 -3.813721208979 -5.039407421624
3.428116023816  0.699902043247 -5.072218333953
3.423643600598  0.703169644443 -4.760751965342
3.457707690347  0.537162793686 -4.734963415994
3.463380335356  0.530670195549 -5.090113363048
-3.289270345013  1.756440365315 -4.852235416617
-3.301717603142  1.739495635031 -5.134024107119
-3.371992332082  1.616033578737 -5.119157119248
-3.364830530145  1.624175998782 -4.864179109627
-2.864816999768  2.327855109628 -4.874674139350
-2.866625981347  2.326676660856 -5.118780735722
-2.940473209769  2.242951910803 -5.129537405602
-2.937170609015  2.245749964412 -4.864589150006
-2.515930062925 -2.977432386953 -5.100815652920
-2.511904068381 -2.976772887755 -4.792417592688
-2.584304713622 -2.913071291381 -4.801808155551
-2.588513951935 -2.913302806819 -5.090683896407
-3.009361874182 -2.477127795109 -5.070673150626
-3.007080628954 -2.475542719674 -4.817223137311
-3.132088564533 -2.314120640690 -4.802505718579
-3.134967115355 -2.315430645540 -5.083673222248
0.228686529965 -3.833584666161 -5.038526406160
0.227859882950 -3.829058206686 -4.759019309290
0.069661843679 -3.841784445947 -4.775807539348
0.069459401623 -3.845877882519 -5.024024210634
1.824473749745  2.962265244532 -5.085805966831
1.821558720108  2.962264952032 -4.793198665896
1.894227992154  2.916071944758 -4.781229346364
1.898378986777  2.915410193957 -5.093181778210
-1.071756066066  3.409021342133 -5.112850137205
-1.069834195417  3.407912027459 -4.846501208727
-1.039274362117  3.415738693937 -4.843216632163
-1.041813552050  3.416722991241 -5.115129835117
3.220709229056  1.330700253582 -4.795851499729
3.223580235211  1.330687948720 -5.070639371281
3.197533154442  1.388522576783 -5.076993031399
3.194494203611  1.388690050623 -4.792818462388
-3.690647581599 -1.176449683456 -5.086487200106
-3.689081611927 -1.174716051243 -4.833159294281
-3.716453387943 -1.074438971299 -4.825594018107
-3.718701221617 -1.074214880353 -5.097086342162
0.897128033557 -3.703379557084 -5.030841139312
0.902267665090 -3.699552018581 -4.768742494843
0.773658186524 -3.734638163178 -4.758197112072
0.745295537798 -3.745050746449 -5.045401236014
-1.390328762590 -3.633237057389 -4.794120834751
-1.361267645685 -3.646965742335 -5.054711573581
-1.297121482928 -3.668983320991 -5.058534627276
-1.302739830831 -3.663098631031 -4.785375229422
-3.439650830695 -1.812013587367 -5.084152052693
-3.437999258914 -1.809567815589 -4.815302534320
-3.485925452602 -1.711968231395 -4.825930194871
-3.486967158945 -1.715273049669 -5.076946976699
2.542298247860 -2.654476503352 -4.739392740925
2.545578083306 -2.660233424204 -5.044486343126
2.676728817091 -2.512041164894 -5.062805400443
2.673582206790 -2.505034200080 -4.722334503621
-0.402727625479  3.519002417671 -5.109078481100
-0.397622906113  3.518120819204 -4.830634032348
-0.371492011850  3.519774113460 -4.832781870862
-0.377392652578  3.520584530415 -5.106340095717
3.314509999467 -1.375015125906 -4.736290573956
3.319819437267 -1.377866344131 -5.069334538503
3.344364881528 -1.302831994803 -5.078163200780
3.339825972537 -1.296677943528 -4.728956576791
2.913665829144  1.897581136150 -4.763331005130
2.916820645941  1.898229255692 -5.094629740674
2.813430867119  2.045063247898 -5.076908157175
2.810719352403  2.044447979584 -4.788407400333
2.385033894392  2.526375402850 -5.081670254633
2.380804330607  2.527441470849 -4.811062008769
2.456169534592  2.454445375876 -4.814441068715
2.460213361405  2.453432620136 -5.073745562576
1.538414929526 -3.445390146364 -5.039557787672
1.535915885507 -3.440743794218 -4.750317617676
1.469954432943 -3.474506415591 -4.757821784956
1.473145457455 -3.478508203204 -5.032795442025
3.463107538247 -0.765526010974 -4.727501427728
3.468313207086 -0.767404837309 -5.091239062449
3.499059468734 -0.549652984119 -5.074995255306
3.494368333919 -0.548374520325 -4.751131924795
-2.019838542695 -3.327404758097 -4.784034823839
-2.022867711256 -3.328648436439 -5.093074920626
-1.933216982411 -3.381534998146 -5.079560029327
-1.928495156715 -3.381515908043 -4.793282440607
-3.805474812161  0.248550404877 -4.854520312762
-3.809531074649  0.223264911189 -5.118241503665
-3.823505651308  0.096163360829 -5.106237921298
-3.820462890937  0.113149709849 -4.862799225842
2.100628909702 -3.082600583501 -5.037842186570
2.087242328991 -3.085750524556 -4.743095752389
1.978185783163 -3.167327366022 -4.730063449009
1.985587870022 -3.169299376389 -5.051660699399
-3.826558979787 -0.357824581275 -4.849678147530
-3.828859162058 -0.357948110223 -5.102992084080
-3.822915993815 -0.434105038378 -5.108531444103
-3.820432118920 -0.434674366126 -4.841052874655
-1.747683313928  3.159861832265 -5.125879243342
-1.747811882038  3.157782919112 -4.853116225069
-1.655394680744  3.199553454769 -4.858861948236
-1.656445334636  3.200996721890 -5.117694765037
3.521571458551 -0.140097481839 -4.767389347060
3.525830020487 -0.142474669141 -5.072955039295
3.523830823820 -0.006962201004 -5.082336767413
3.519389991276 -0.005271904162 -4.762795757730
1.246222210444  3.262221576203 -5.083263700729
1.249388548903  3.259094808345 -4.831463405422
1.357636710712  3.212255551086 -4.832023222030
1.352978713795  3.215974462126 -5.076175193283
0.215726009305  3.514774814543 -5.081834596605
0.213076718461  3.513680341522 -4.841115768590
1.055537420690 -3.651841016671 -5.022555029373
1.050222193974 -3.651526895049 -4.774599833174
-3.413888007526  1.531631836183 -4.869354995693
-3.417504632250  1.529920099974 -5.111783144632
-3.467160829252  1.428435513798 -5.106495838226
-3.467402214927  1.422453439743 -4.871821368882
-3.613939964299  1.075308908095 -5.110332571402
-3.615717643087  1.065173003153 -4.857518642788
-3.588664890897  1.136876348975 -4.862653409864
-3.587918938420  1.144108181189 -5.107382738401
3.289290897937 -1.462267028892 -5.061848174868
3.284125623421 -1.459701691065 -4.741792132241
-0.011140099524 -3.849596268623 -5.019004440889
-0.013323590646 -3.845804503593 -4.782284437742
-3.056794432793  2.098940782095 -5.154759872732
-3.052846281238  2.102350370924 -4.840221663758
-3.009897129257  2.157776341816 -4.850752421433
-3.012941283319  2.155417160121 -5.143760431777
2.022462986941  2.825824727954 -4.764335556990
2.027550001032  2.824772834327 -5.113311338662
1.995802540890  2.844520916252 -4.758653212174
-3.728002793333  0.690903323904 -5.153598103107
-3.733634551169  0.666207897169 -4.806332843145
-3.727071030718  0.691769546555 -4.806134760983
-0.432463932075 -3.840475054019 -5.019233505327
-0.436065980028 -3.836929907494 -4.789529306943
-0.505139782017 -3.830354297603 -4.786216821500
-0.501186797087 -3.834043280506 -5.023853165167
3.076471767169 -1.915550864175 -4.735924675320
3.081836908303 -1.918701334917 -5.056830275108
3.127509179056 -1.832259501336 -5.052435286156
3.124085839714 -1.825896883502 -4.742528429722
-1.530584988546 -3.579123115090 -4.803089987984
-1.529547850198 -3.581937765104 -5.050879331436
-1.451985734775 -3.612657728298 -5.052007906221
-1.463754357527 -3.605546727470 -4.799327175472
-0.147141047730  3.526918193959 -4.844722560029
-0.140932154542  3.527750159573 -5.087806818861
-0.265561512847  3.525816690510 -5.095871364746
-0.257778097153  3.525167313632 -4.840467867248
3.261441234882  1.239106014189 -5.063594024500
3.257729395155  1.241372107090 -4.797695908192
3.279132839445  1.184713115179 -4.797118154300
3.283696126583  1.180135010697 -5.060950120678
-3.377101250401 -1.924245428468 -4.798939302576
-3.375927783943 -1.932632634148 -5.097058388632
-1.828504205859  3.116600976666 -4.844019193320
-1.826170146647  3.119951367193 -5.136794840467
-1.141514991487 -3.716490092502 -5.072842931050
-1.140616252507 -3.712048567080 -4.764131443050
-1.175820782024 -3.701896793122 -4.769126312166
-1.175512255323 -3.706559523871 -5.069334096455
-2.668039858034 -2.840802656331 -5.080929805296
-2.664428014315 -2.840291505729 -4.810827168204
-3.211124987277 -2.201360560659 -4.786765406323
-3.214210108070 -2.202958011706 -5.098171182350
3.092040157735  1.604668637056 -5.107997080885
3.089533153789  1.602698333377 -4.774714473007
3.142826432116  1.498323495823 -4.785312378599
3.145576153720  1.499247308486 -5.091018964112
-0.922063360183  3.445535895758 -5.125950226901
-0.918131499462  3.444735898791 -4.828439060244
1.386254772304 -3.519272659824 -5.026639994301
1.377660910061 -3.518086597965 -4.765323825326
3.392822111808  0.843865826923 -5.061712690898
3.389797303329  0.842597755784 -4.778007316738
3.398630506167  0.808014800403 -4.774095952262
3.402192809675  0.807473129399 -5.063968629256
-2.440362242876 -3.035806940495 -4.780785883632
-2.445248074434 -3.036063004565 -5.112980591139
1.725101127303  3.021460419050 -4.807312623263
1.725654526714  3.022772356096 -5.077717665759
1.654777545846  3.063179853765 -5.074391833082
1.654026984376  3.062047723597 -4.815175807477
-2.503671632005  2.662865227701 -4.874184037449
-2.500552113333  2.666807493273 -5.116578948276
-2.547727499934  2.627763856668 -5.113594757612
-2.549059346129  2.625335043847 -4.877352663113
1.631799384572 -3.387737395719 -4.736192491994
1.634477747624 -3.392853940099 -5.052759302658
-1.837642352315 -3.431518790787 -4.799427527506
-1.838525743084 -3.433491959603 -5.068613568933
-3.750058546489 -0.944176852793 -5.114157248926
-3.747000309485 -0.946755119444 -4.812321645134
-2.118643768828  2.947655261537 -4.824487534640
-2.116425629504  2.951526524914 -5.163531469352
3.474297180742  0.430690040101 -4.714000216833
3.475408866747  0.423764258797 -4.715128146537
3.481054706510  0.420430738960 -5.106489862045
-0.836573805190 -3.787517701837 -5.060427725316
-0.830224583925 -3.784253595388 -4.757333988527
2.439979753865 -2.763697219028 -4.748054032365
2.442647650139 -2.769553524235 -5.034931432150
2.173461726081 -3.022214851793 -5.032888362675
2.167395405890 -3.019593101027 -4.748710988933
-1.179832434625  3.377882613584 -4.856714694372
-1.182253183391  3.378750828118 -5.106020960562
2.964963622648  1.816451944022 -4.745832303686
2.982238015379  1.789228524534 -4.745635852071
2.914150822562 -2.199191202913 -5.087408689597
2.907581838411 -2.195536157170 -4.699055199020
-3.780923446481  0.420868036837 -4.838997467287
-3.784411568563  0.400028925888 -5.139990615397
-3.533725836428 -1.611614570939 -5.072496998046
-3.532402612062 -1.609207626583 -4.833752997463
2.294275483920  2.606103448634 -4.803941716529
2.298196445867  2.605517858222 -5.093968472440
0.671433567502 -3.757308617075 -4.745542266213
0.656100969717 -3.765162438625 -5.057695623800
2.537381997660  2.373737785269 -5.068577798708
2.531820287215  2.376384448785 -4.814818004026
3.373248763744 -1.180756498670 -4.714854258012
3.374982802858 -1.198395866764 -5.093420164361
-3.649326087090 -1.310494411808 -5.076356575335
-3.648009244132 -1.308391154328 -4.839369524718
0.658146262451  3.444308251298 -4.787783744321
0.658562042955  3.446182639008 -5.122925671104
-3.809432536823 -0.549637188228 -4.826479946525
-3.812174779155 -0.548690022157 -5.118465928796
3.516928196124  0.105472933034 -5.094957094332
3.512225490196  0.106752042902 -4.754203495996
-3.830045559081 -0.008490115671 -5.100771118233
-3.827897240865 -0.004745855660 -4.864894358937
-0.543597451899  3.506567224046 -4.816498786803
-0.546775004959  3.507747030663 -5.126736918704
-3.233340094773  1.847573322134 -4.840777889233
-3.239037656987  1.841971920619 -5.150083620566
-3.734441270162  0.662598951232 -4.806258210684
0.700442615276  3.434104328219 -4.779386185637
0.717785188841  3.429939517330 -4.779177830705
-0.099719759182 -0.053585700315 -1.618624242555
-0.149383489445 -0.042351525242 -1.618624242555
-0.188048743405 -0.066343836924 -1.618624242555
-0.200370030181 -0.116084232884 -1.618624242555
-0.178239078458 -0.152975029075 -1.618624242555
-0.124174997889 -0.166329642339 -1.618624242555
-0.085237912723 -0.142209741351 -1.618624242555
-0.074181172810 -0.093217622597 -1.618624242555
-0.264364398751  0.700186373967 -2.235949814472
0.301048424969  0.499369297494 -2.173127305400
0.309074129230  0.507394972354 -2.182793273758
0.628002962902  0.011872643731 -2.182512795774
0.628493977387  0.011863099534 -2.182922678751
0.476115873592 -0.554244595491 -2.162463269147
0.473857747068 -0.553076547272 -2.160367399476
-0.009061059410 -0.869093575223 -2.172436343399
-0.008935534770 -0.896375543760 -2.194816976514
-0.603173500364 -0.755928375025 -2.200022438450
-0.611547536752 -0.764544761245 -2.210031862839
-0.913933680114 -0.242937458883 -2.202250521237
-0.912233015895 -0.242333874225 -2.200725973832
-0.766426804721  0.341465246732 -2.199706265674
-0.767224332022  0.342247626125 -2.200674297434
-0.264403070093  0.695781102209 -2.232146914196
1.628296927116  2.168225612270 -5.826438709865
-0.564013397376  2.745756846866 -5.830550176099
-0.564493270752  2.749019683807 -5.828471458801
-0.563685270285  2.750995793454 -5.827018541018
1.640508472697  2.163663484969 -5.825025332050
1.654146828967  2.168815312391 -5.814964919950
3.019340968068  1.698741415846 -5.145355416664
2.756993575927  0.242474329999 -5.803442219295
2.753324556343  0.239579928141 -5.806665041270
2.220039092113 -1.873380133449 -5.796204531665
2.208925897121 -1.872283117997 -5.804079014062
2.067580171698 -0.719070597788 -6.109004756091
2.752297219847  0.234100857404 -5.807307746879
1.027043378893 -2.105915730707 -6.104214218113
2.203818967902 -1.876052404803 -5.804747311837
1.801763988425 -3.286556418962 -5.088431979008
0.357556030218 -3.026225685117 -5.789335247655
0.355662028013 -3.023835400231 -5.791513687202
0.353909445641 -3.013612043028 -5.798453380078
-1.843073122027 -2.587219073814 -5.787492942057
-1.842106457614 -2.585882076847 -5.788569647088
-0.661782503246 -2.376941306263 -6.102409574912
-1.844241495313 -2.593344808809 -5.783020964672
-2.062445749714 -1.388940251328 -6.107629320861
-3.020658920042 -0.636739921520 -5.821265564873
-3.016598523401 -0.636149644841 -5.823899046054
-2.535415012835  1.547921726404 -5.858269083826
-2.534809681140  1.547489377931 -5.858730042117
-3.028530326944 -0.633982529070 -5.815647815458
-3.737748706642  0.593767571542 -5.180841664471
-2.540876722901  1.548314192190 -5.854570887325
